  10094.40    4104.70     142.94
  10107.68    4141.41     142.92
  10120.70    4178.71     142.81
  10133.61    4216.16     142.78
  10148.93    4252.58     142.76
  10164.44    4289.13     142.74
  10179.49    4325.61     142.72
  10197.90    4360.14     142.69
  10217.33    4394.38     142.66
  10237.54    4428.47     142.64
  10258.59    4462.19     142.62
  10280.37    4495.47     142.60
  10302.27    4528.29     142.58
  10325.39    4560.22     142.56
  10349.20    4591.68     142.53
  10373.09    4623.56     142.51
  10397.41    4655.20     142.49
  10422.41    4686.40     142.31
  10447.11    4717.82     142.31
  10471.64    4749.25     142.31
  10496.15    4780.44     142.31
  10521.38    4810.89     142.31
  10546.93    4840.69     142.31
  10572.66    4870.55     142.71
  10599.72    4899.14     142.31
  10627.70    4926.27     142.31
  10656.51    4952.82     142.28
  10686.84    4978.21     142.26
  10718.88    5002.07     142.24
  10751.15    5026.13     142.15
  10784.05    5050.92     142.11
  10813.49    5078.97     142.08
  10840.91    5107.83     142.15
  10868.06    5137.07     142.13
  10895.46    5165.78     142.11
  10923.22    5193.96     142.23
  10951.78    5221.17     142.23
  10981.54    5247.14     142.39
  11012.88    5271.97     142.55
  11045.55    5296.64     142.69
  11075.94    5325.01     142.87
  11089.73    5341.44     142.94
  11100.92    5360.11     143.09
  11109.65    5380.12     143.16
  11122.30    5420.17     143.29
  11130.38    5459.82     143.50
  11139.09    5497.70     143.75
  11152.30    5533.16     143.83
  11170.79    5566.30     143.93
  11193.74    5597.59     144.00
  11218.49    5628.63     143.96
  11242.31    5661.49     143.82
  11263.37    5696.40     143.72
  11282.16    5731.93     143.62
  11300.79    5766.63     143.45
  11321.36    5799.54     143.23
  11344.69    5830.45     143.08
  11370.29    5859.84     142.97
  11397.43    5888.36     142.82
  11425.37    5916.65     142.88
  11453.42    5945.25     142.73
  11481.10    5974.44     142.75
  11508.23    6004.24     142.66
  11534.73    6034.62     142.61
  11560.51    6065.60     142.45
  11585.55    6097.14     142.17
  11609.95    6129.10     142.13
  11633.86    6161.31     142.36
  11657.45    6193.65     142.39
  11680.87    6226.01     142.36
  11704.31    6258.25     142.27
  11727.92    6290.26     142.23
  11751.88    6321.92     142.20
  11776.38    6353.14     142.17
  11801.53    6383.94     142.15
  11827.15    6414.65     142.11
  11852.65    6445.92     142.07
  11877.25    6478.39     141.99
  11899.93    6512.60     141.98
  11919.77    6548.69     141.98
  11936.58    6586.13     141.89
  11951.09    6624.24     141.85
  11964.19    6662.60     141.88
  11976.50    6701.25     141.85
  11987.90    6740.61     141.72
  11997.34    6781.03     141.68
  12002.61    6822.48     141.76
  10167.47    3985.58     144.29
  10152.22    4021.59     143.61
  10146.69    4042.99     143.58
  10145.34    4065.33     143.22
  10148.55    4087.80     143.20
  10155.24    4108.91     143.20
  10164.22    4128.70     143.18
  10173.67    4147.68     143.19
  10184.46    4165.47     143.15
  10195.49    4182.96     143.14
  10205.16    4200.64     143.13
  10214.41    4218.37     143.11
  10223.78    4236.02     143.10
  10233.76    4253.25     143.15
  10244.25    4270.44     143.14
  10254.74    4287.76     143.21
  10265.33    4304.89     143.16
  10276.29    4321.81     143.11
  10287.21    4338.64     143.11
  10297.99    4355.46     143.10
  10308.61    4372.36     142.99
  10319.14    4389.35     142.97
  10329.68    4406.39     142.94
  10340.35    4423.42     142.92
  10351.27    4440.43     142.90
  10362.57    4457.41     142.87
  10374.39    4474.39     142.85
  10387.10    4491.00     142.82
  10401.02    4506.88     142.80
  10416.15    4521.58     142.94
  10432.27    4535.05     142.93
  10448.87    4547.55     143.38
  10465.53    4559.34     143.37
  10482.15    4570.80     142.89
  10498.38    4582.55     142.87
  10513.80    4595.11     142.87
  10528.22    4608.69     142.85
  10541.70    4623.16     143.31
  10554.45    4638.32     143.29
  10566.57    4654.03     143.28
  10578.13    4670.19     143.27
  10589.22    4686.70     143.26
  10599.89    4703.56     143.25
  10610.21    4720.71     143.23
  10620.31    4738.03     142.75
  10630.43    4755.32     142.74
  10640.75    4772.49     142.73
  10651.28    4789.60     142.64
  10661.97    4806.76     142.62
  10672.78    4823.91     142.60
  10683.93    4840.62     142.26
  10695.78    4856.65     142.23
  10708.09    4872.23     142.21
  10720.79    4887.42     142.19
  10733.84    4902.19     142.16
  10747.18    4916.60     142.14
  10760.52    4931.22     142.49
  10773.59    4946.42     142.09
  10786.90    4963.49     142.07
  10805.22    4974.60     142.44
  10821.35    4986.23     142.42
  10836.71    4998.46     142.41
  10851.78    5010.98     142.53
  10867.11    5023.66     142.51
  10882.83    5036.48     142.35
  10899.47    5048.22     142.49
  10916.45    5059.74     142.48
  10932.34    5072.07     142.47
  10947.69    5084.82     142.29
  10962.75    5097.85     142.28
  10977.59    5111.10     142.25
  10992.25    5124.54     142.21
  11006.73    5138.15     142.17
  11021.05    5151.91     142.12
  11035.21    5165.81     142.07
  11049.22    5179.81     142.28
  11063.10    5193.89     142.25
  11076.80    5208.10     142.22
  11090.08    5222.91     141.88
  11102.75    5238.36     141.83
  11115.25    5253.87     141.78
  11128.34    5269.15     141.72
  11141.69    5284.24     141.25
  11155.21    5299.02     141.20
  11168.85    5313.58     141.59
  11182.39    5328.31     141.53
  11195.71    5343.17     141.93
  11209.30    5357.67     141.90
  11223.49    5371.84     142.39
  11237.85    5385.82     142.37
  11252.37    5399.59     143.13
  11267.06    5413.16     142.30
  11281.88    5426.53     142.28
  11296.79    5439.56     142.24
  11311.80    5451.85     142.22
  11326.78    5462.94     143.02
  11353.15    5481.16     142.97
  11379.93    5462.97     140.77
  11381.27    5444.65     140.77
  11380.84    5423.45     140.89
  11374.66    5402.10     140.90
  11366.13    5382.09     140.91
  11357.36    5362.64     141.06
  11347.42    5344.12     141.07
  11336.33    5326.52     141.08
  11325.55    5309.33     141.08
  11314.90    5292.59     140.94
  11304.13    5276.66     140.95
  11294.48    5259.80     140.96
  11286.25    5242.44     140.96
  11277.37    5224.76     141.12
  11268.32    5206.82     141.13
  11259.34    5188.66     141.14
  11250.43    5170.35     141.14
  11241.37    5152.11     141.15
  11232.10    5134.00     141.16
  11223.07    5115.83     141.16
  11214.61    5097.62     141.02
  11206.48    5079.42     141.03
  11198.48    5061.25     141.04
  11190.50    5043.11     141.04
  11182.49    5025.00     141.06
  11174.42    5006.95     141.07
  11166.29    4988.99     141.09
  11158.17    4971.05     141.11
  11150.45    4952.74     141.12
  11143.22    4934.18     141.29
  11135.62    4915.62     141.31
  11126.96    4897.01     141.33
  11116.40    4879.75     141.19
  11106.24    4861.69     141.20
  11096.79    4843.81     141.22
  11085.84    4826.13     141.24
  11075.07    4808.73     141.26
  11063.73    4791.88     141.27
  11051.97    4775.26     141.29
  11040.52    4758.04     141.47
  11028.45    4741.52     141.49
  11014.86    4726.17     141.34
  11001.03    4711.25     141.35
  10987.07    4696.51     141.37
  10972.98    4681.83     141.39
  10958.81    4667.17     141.40
  10944.61    4652.67     141.42
  10930.29    4638.88     141.44
  10916.54    4624.26     141.45
  10902.78    4610.57     141.33
  10888.35    4596.24     141.35
  10874.41    4582.01     141.36
  10859.33    4568.27     141.38
  10844.83    4554.32     141.39
  10830.57    4540.22     141.41
  10816.51    4526.00     141.43
  10802.51    4511.73     141.44
  10788.46    4497.41     142.09
  10774.42    4482.96     142.09
  10760.48    4468.41     142.09
  10746.61    4453.86     142.10
  10732.71    4439.40     142.10
  10718.72    4425.06     142.11
  10704.64    4410.80     142.11
  10690.57    4396.49     142.11
  10676.62    4382.07     141.58
  10662.76    4367.69     141.59
  10648.76    4353.48     141.61
  10634.55    4339.41     141.62
  10620.28    4325.36     141.64
  10606.06    4311.26     141.66
  10591.97    4297.07     141.67
  10578.01    4282.76     141.69
  11520.50    5966.31     141.90
  11547.83    5996.96     141.82
  11574.39    6028.16     141.82
  11600.14    6060.00     141.90
  11625.25    6092.20     141.83
  11649.73    6124.47     141.87
  11685.37    6173.25     141.80
  11708.76    6205.63     141.80
  11744.06    6253.46     141.79
  11767.67    6284.95     141.79
  11791.71    6316.14     141.78
  11816.51    6346.80     141.78
  11841.83    6377.44     141.75
  11867.30    6408.66     141.74
  11892.96    6441.46     141.72
  11917.91    6476.41     141.69
  11929.34    6494.97     141.66
  11940.09    6514.08     141.72
  11950.13    6533.53     141.72
  11959.33    6553.26     141.72
  11975.52    6593.03     141.71
  11989.99    6632.41     141.70
  12003.57    6671.76     141.70
  12016.38    6711.96     141.69
  11505.14    5646.26     140.84
  12050.31    6783.83     141.28
  11369.50    5510.92     142.46
  10156.00    3956.92     143.66
  10119.82    4008.47     143.09
  12049.18    6503.22     140.79
  10173.83    4218.93     142.84
  10223.78    4305.57     143.03
  10236.29    4323.52     143.03
  10247.10    4340.62     143.03
  10257.57    4357.55     143.02
  10267.94    4374.45     143.02
  10278.33    4391.35     143.02
  10288.78    4408.25     143.00
  10299.36    4425.17     143.04
  10310.14    4442.09     143.03
  10321.15    4459.06     143.01
  11394.23    5488.90     140.84
  10461.24    4598.97     142.25
  10476.81    4610.02     142.30
  10490.79    4622.83     142.18
  10502.67    4637.19     142.14
  10514.72    4652.07     142.12
  10526.72    4667.36     142.08
  10538.48    4682.98     142.04
  10549.94    4698.86     142.01
  10561.03    4715.07     141.97
  10571.65    4731.84     142.05
  10581.48    4749.84     142.01
  10591.11    4768.08     142.28
  10602.18    4785.13     142.26
  10613.43    4801.73     142.23
  10624.63    4818.12     142.21
  10635.53    4834.92     142.65
  10644.15    4856.81     142.65
  10657.71    4872.68     142.63
  10670.96    4887.56     142.62
  10697.68    4916.02     142.59
  10711.21    4929.40     142.59
  10737.39    4952.81     142.55
  10773.52    4979.66     141.94
  10802.38    5012.84     142.49
  10826.37    5039.05     142.47
  10883.31    5079.60     142.42
  10896.73    5090.36     142.42
  10910.86    5102.68     142.40
  10925.19    5115.64     142.39
  10939.52    5128.94     142.38
  10953.82    5142.37     142.36
  10968.05    5155.87     142.35
  10982.26    5169.36     142.34
  10996.47    5182.84     142.33
  11010.70    5196.27     141.75
  11024.98    5209.61     142.30
  11039.24    5222.70     142.29
  11053.28    5235.26     142.28
  11066.52    5246.36     141.82
  11071.84    5265.58     142.26
  11087.43    5282.14     142.15
  11102.12    5298.02     142.13
  11116.59    5313.78     142.11
  11131.69    5327.48     142.09
  11159.89    5352.21     141.97
  11167.78    5370.33     142.16
  11185.31    5383.92     141.85
  11199.64    5398.05     141.72
  11213.86    5412.16     141.71
  11228.47    5425.98     141.75
  11243.57    5439.56     141.81
  11258.83    5452.97     141.05
  11274.39    5466.07     141.04
  11290.43    5478.97     141.03
  11124.05    4824.20     141.23
  11115.58    4807.76     141.24
  11681.93    5895.77     140.80
  10884.22    4543.37     141.92
  10870.22    4530.06     141.95
  10856.59    4515.80     141.96
  10843.50    4500.33     141.98
  10829.73    4485.45     142.00
  10814.45    4471.38     142.03
  10799.56    4456.82     142.05
  10785.44    4441.82     142.08
  10771.41    4427.09     142.10
  10757.07    4412.86     142.12
  10742.64    4398.99     142.15
  10728.29    4385.48     142.17
  10714.26    4372.20     142.19
  10701.65    4356.91     142.29
  10689.91    4341.21     142.31
  10675.76    4326.51     142.34
  10661.23    4312.22     142.37
  10646.72    4298.11     142.40
  10632.31    4284.08     142.43
  10618.05    4270.09     142.46
  10603.95    4256.10     142.49
  10590.07    4242.08     142.51
  10576.52    4227.90     142.54
  10563.54    4212.91     142.56
  10552.99    4192.68     142.34
  10537.57    4177.88     142.36
  10523.19    4164.09     142.38
  10509.37    4151.14     142.40
  10496.32    4139.87     142.42
  12056.46    6521.73     140.78
  10183.51    3945.19     144.89
  10284.15    3976.16     142.57
  10268.68    3963.90     142.57
  10251.66    3952.92     142.57
  10233.33    3943.95     142.57
  10078.52    3455.81     143.09
  11726.07    5967.00     140.62
  11476.85    5573.19     140.75
  11912.41    6224.84     140.94
  12028.60    6754.28     141.68
  11697.07    6189.47     141.80
  10332.43    4476.20     143.00
  11325.51    5495.75     140.63
  11673.57    6157.00     141.80
  11307.53    5489.26     140.68
  10717.85    4313.12     141.57
  10344.00    4493.98     142.99
  12041.27    6485.04     140.80
  10058.54    3459.08     142.95
  12109.00    6772.96     140.58
  10098.65    3453.25     142.72
  10062.60    3571.61     143.13
  12133.14    6723.55     140.70
  10152.92    3493.38     143.48
  10150.81    3469.05     143.53
  12148.93    6765.15     141.16
  10066.52    3675.66     143.06
  11130.59    5346.92     142.34
  10154.38    3515.33     143.43
  10208.30    3809.29     142.44
  10895.19    4484.42     141.27
  10133.17    3988.40     142.94
  11526.56    5662.07     140.84
  11985.96    6360.28     140.92
  10898.05    4504.59     141.46
  11869.54    6161.05     140.78
  10145.10    3971.94     143.18
  12032.73    6776.22     141.39
  11180.40    4941.13     141.05
  10387.65    4022.36     142.30
  10414.19    4049.55     142.31
  10118.48    3449.98     143.06
  10065.77    3614.21     143.12
  10444.95    4076.59     142.32
  10475.33    4104.87     142.17
  10373.76    4532.27     142.95
  10427.49    4575.63     142.33
  12010.62    6412.87     140.75
  11994.55    6377.65     140.94
  10657.82    4257.06     141.82
  11950.51    6291.77     140.96
  11932.33    6257.78     140.95
  11662.48    5858.66     140.80
  11891.27    6192.86     140.92
  10687.19    4284.93     141.62
  10734.63    4325.82     141.55
  10906.64    4539.54     141.72
  11644.61    5821.51     140.73
  11627.85    5785.22     140.70
  11612.46    5750.45     140.82
  11440.97    5517.57     140.87
  11205.80    4990.28     140.97
  11222.54    5025.57     140.91
  11452.64    5534.95     140.86
  10298.63    3987.77     142.57
  11254.73    5096.98     140.88
  11238.67    5061.24     140.90
  11188.74    4956.25     141.02
  11080.15    4755.98     141.34
  12101.61    6632.59     140.74
  12122.21    6686.14     140.64
  10783.45    4363.60     141.48
  10814.07    4388.61     141.43
  11544.47    5675.54     140.74
  10629.13    4229.54     141.86
  10601.31    4202.56     141.90
  10572.09    4178.44     141.94
  10541.66    4155.39     142.35
  10511.35    4130.18     142.34
  10350.91    4001.94     142.29
  10323.29    3965.54     142.25
  10293.89    3935.86     142.16
  10267.71    3902.42     142.05
  10241.54    3867.01     142.09
  10168.58    3682.11     142.94
  10161.64    3639.78     143.11
  10157.30    3597.99     143.25
  10154.79    3556.58     143.33
  12063.54    6540.35     140.77
  10051.52    3506.48     143.04
  11167.43    5469.22     143.63
  10067.92    3715.63     143.07
  10070.71    3794.00     143.09
  10073.41    3832.49     142.73
  10076.94    3870.55     142.76
  10081.07    3908.04     142.72
  10086.23    3945.10     142.77
  10094.98    3981.95     142.84
  10102.12    4017.80     142.91
  10157.43    4186.60     142.85
  10191.43    4255.11     142.86
  10203.55    4296.31     142.81
  10217.36    4326.05     142.60
  10237.62    4358.70     142.56
  10257.98    4392.46     142.53
  10278.78    4426.23     142.53
  10300.28    4459.89     142.53
  10322.27    4493.49     142.53
  10339.82    4526.12     142.53
  10366.67    4553.10     142.54
  10388.76    4586.69     142.54
  10412.20    4617.86     142.51
  10438.05    4648.02     142.63
  10464.09    4679.50     142.61
  10488.47    4711.32     142.59
  10512.07    4742.56     142.57
  10534.90    4772.83     142.55
  10561.86    4799.02     142.53
  10586.28    4829.19     142.51
  10610.18    4858.66     142.50
  10638.62    4882.57     142.44
  10665.71    4910.00     142.43
  10693.39    4937.03     142.56
  10722.80    4961.94     142.56
  10756.40    4985.49     142.42
  10787.08    5006.45     142.41
  10854.51    5066.76     142.36
  10878.49    5097.32     142.56
  10906.29    5123.67     142.57
  10934.48    5150.71     142.57
  10962.74    5177.82     142.54
  10991.29    5204.57     142.44
  11020.45    5230.75     142.38
  11158.83    5409.17     142.28
  11259.05    5625.36     143.84
  11234.61    5592.95     144.03
  11051.19    5255.76     142.33
  11292.59    5678.84     143.56
  11312.08    5714.37     143.39
  11330.74    5747.93     143.20
  11350.47    5779.19     143.05
  11372.37    5808.52     142.87
  11396.60    5836.72     142.72
  11422.83    5864.59     142.57
  11450.38    5892.74     142.43
  11478.48    5921.58     142.27
  11506.61    5951.23     142.01
  11534.28    5981.58     141.82
  11561.24    6012.50     141.82
  11587.38    6044.02     141.90
  11612.76    6076.11     141.84
  11637.60    6108.31     141.88
  11661.69    6140.71     141.87
  10048.90    3481.93     143.14
  11732.26    6237.62     141.79
  11755.88    6269.22     141.79
  11779.63    6300.61     141.78
  11804.09    6331.53     141.78
  11829.19    6362.12     141.75
  11854.60    6392.93     141.75
  11880.11    6424.84     141.74
  11905.74    6458.59     141.70
  11967.70    6573.15     141.71
  11982.89    6612.76     141.71
  11996.86    6652.04     141.70
  12010.14    6691.70     141.69
  12022.53    6732.77     141.69
  11351.14    5512.80     141.47
  10217.61    4286.97     143.04
  11388.64    5507.48     142.42
  10444.17    4587.81     142.29
  11171.74    5486.65     143.64
  10684.25    4901.90     142.61
  10724.64    4941.84     142.56
  11146.69    5340.39     142.19
  10214.80    3936.64     142.41
  11161.73    5431.81     142.94
  10907.65    4520.24     141.44
  11464.07    5552.96     140.75
  10328.76    3999.80     142.63
  10896.36    4556.50     141.87
  10390.19    4550.31     142.89
  10411.18    4562.04     142.44
  10167.61    3944.79     144.82
  11178.30    5502.46     143.73
  10889.62    4467.00     141.29
  10079.86    3558.56     143.00
  10083.38    3602.59     143.05
  10163.69    3739.92     143.04
  10423.83    4598.20     142.90
  11974.87    6377.00     140.80
  12051.49    6762.32     141.31
  12109.19    6650.21     140.65
  10571.36    4196.41     142.08
  11930.06    6292.12     140.88
  12095.15    6757.84     140.48
  11938.43    6309.40     140.84
  11651.92    5875.95     140.97
  11471.75    5616.31     140.97
  11642.58    5857.00     140.97
  10127.13    3970.37     143.08
  10637.98    4263.62     142.00
  10852.77    4436.53     141.54
  11290.99    5642.47     143.68
  11752.89    6036.81     140.97
  11729.05    6002.65     140.98
  10652.40    4277.58     141.99
  12074.00    6612.06     140.53
  11682.61    5931.81     141.05
  10187.08    3806.12     142.72
  11624.63    5819.72     140.70
  10780.22    4384.71     142.00
  11607.73    5783.50     140.82
  11463.84    5593.61     140.99
  11420.62    5519.19     140.94
  10083.17    3685.66     143.02
  10626.73    4852.27     142.63
  12119.46    6735.78     140.47
  11740.75    6019.96     140.97
  10311.45    3998.24     142.57
  10288.05    3955.81     142.27
  11900.33    6422.26     142.19
  11705.57    5967.52     141.00
  10195.32    3930.98     142.22
  10857.22    4453.69     141.86
  12127.59    6704.63     140.63
  10130.57    3464.78     143.86
  10158.18    3717.91     143.28
  11570.33    5722.73     140.83
  10136.75    3526.55     143.59
  10811.50    4412.45     141.94
  10749.85    4358.38     142.05
  10765.06    4371.41     142.02
  10681.82    4305.79     141.95
  10667.00    4291.62     141.97
  10596.00    4222.33     142.05
  10609.70    4236.00     142.03
  10582.99    4209.00     142.07
  11525.48    5682.39     140.95
  10795.49    4398.24     141.97
  11765.47    6052.96     140.96
  10084.12    3665.49     143.04
  10303.29    3969.54     142.32
  10270.90    3940.25     142.26
  10245.56    3907.29     142.41
  10207.96    3847.54     142.61
  11616.07    5801.54     140.81
  10145.15    3652.66     143.30
  10149.23    3674.24     143.39
  10138.10    3588.73     143.46
  10071.77    3512.90     142.97
  11778.44    6068.50     140.99
  11814.58    6116.35     140.96
  11693.92    5949.74     141.00
  10139.37    3953.52     143.17
  10090.13    3821.66     143.09
  10085.70    3645.37     143.03
  10170.38    3762.18     142.98
  12058.76    6574.56     140.66
  12066.38    6593.36     140.65
  10087.37    3783.63     142.90
  10093.51    3859.34     143.08
  10086.25    3724.99     143.06
  11498.21    5917.10     142.33
  10091.68    3840.50     143.09
  12044.12    6536.74     140.67
  10103.74    3950.30     143.09
  11740.24    6219.43     142.25
  11633.48    5838.27     140.68
  11983.55    6394.04     140.79
  10219.93    3866.54     142.53
  10248.86    3931.67     142.37
  10408.57    4582.75     142.91
  11442.29    5859.66     142.42
  10485.17    4676.24     142.68
  10509.17    4707.74     142.68
  10552.13    4768.37     142.55
  10605.45    4823.26     142.64
  10532.06    4738.93     142.67
  10713.16    4336.22     141.92
  11432.34    5536.09     140.94
  11408.31    5502.81     141.19
  12114.83    6753.34     140.59
  10064.55    3494.06     142.83
  10088.63    3802.77     142.92
  12051.24    6555.55     140.66
  12074.45    6761.38     140.56
  11204.78    5519.21     143.81
  11541.10    5695.49     140.86
  11717.27    5985.09     140.99
  11764.14    6250.70     142.19
  11979.28    6556.66     141.83
  11312.34    5679.14     143.29
  11242.53    5574.64     144.03
  11279.53    5624.20     143.78
  11301.93    5660.85     143.38
  11681.63    6138.64     142.06
  11350.26    5746.45     142.99
  10460.03    4641.75     142.69
  10114.08    3986.56     143.27
  11370.06    5776.32     142.99
  11811.95    6313.21     142.08
  11787.69    6282.09     142.13
  11752.19    6235.06     142.21
  11657.82    6105.92     142.09
  11938.83    6476.16     142.06
  11995.05    6597.18     141.74
  11987.33    6577.08     141.79
  12016.73    6656.47     141.58
  11506.13    5671.20     140.95
  10473.87    4627.49     142.82
  10482.69    4641.93     142.81
  10494.16    4656.93     142.79
  10506.10    4672.28     142.78
  10517.99    4687.81     142.77
  10529.64    4703.50     142.76
  10541.00    4719.30     142.75
  10551.92    4735.33     142.73
  10569.40    4774.23     142.55
  10581.95    4791.23     142.54
  10593.84    4807.34     142.53
  11443.63    5553.74     140.94
  11799.68    6297.77     142.10
  11595.09    5749.51     140.74
  11168.22    5390.68     142.17
  11180.68    5403.34     142.14
  11194.32    5417.66     142.06
  11208.17    5432.00     142.08
  11223.78    5445.80     142.02
  11239.26    5459.54     142.06
  11254.93    5472.95     141.92
  11271.15    5485.89     141.97
  10084.77    3705.23     143.04
  11391.85    5804.52     142.81
  10623.73    4249.80     142.02
  11469.95    5887.93     142.26
  11874.97    6389.66     142.22
  10890.22    4525.09     141.71
  11661.58    5894.90     141.07
  12097.02    6664.93     140.77
  11881.61    6210.55     140.92
  11267.71    5606.55     143.86
  10876.65    4512.11     141.91
  10863.74    4497.11     141.93
  10853.27    4478.17     141.75
  10835.46    4464.71     141.98
  10818.92    4451.23     142.00
  10804.65    4435.75     142.01
  10791.01    4420.21     142.03
  10776.25    4405.93     142.05
  10761.45    4392.17     142.07
  10732.45    4366.14     142.11
  10718.98    4355.08     142.13
  10099.08    3914.60     143.09
  11184.31    5458.01     142.23
  10429.39    4616.99     142.70
  11998.68    6428.57     140.89
  11912.61    6258.24     140.90
  12036.89    6717.45     141.44
  11331.62    5714.12     143.13
  11607.52    6041.43     142.17
  10089.87    3473.07     143.52
  10443.85    4607.72     142.84
  10459.29    4618.88     142.83
  11554.62    5978.02     142.24
  11415.99    5832.08     142.66
  10084.85    3624.06     143.03
  10081.76    3580.84     143.00
  11926.85    6457.16     142.10
  12043.25    6738.91     141.38
  12009.63    6636.71     141.63
  10077.34    3535.27     142.98
  11970.43    6536.17     141.90
  11960.53    6515.93     141.94
  11949.91    6495.95     141.99
  12030.64    6696.69     141.49
  11913.73    6439.34     142.15
  11887.58    6405.71     142.24
  11862.43    6374.16     142.26
  11837.00    6343.63     142.32
  11728.39    6203.61     142.28
  11849.76    6358.92     142.29
  11669.82    6122.18     142.08
  11645.45    6089.91     141.80
  11594.68    6025.34     142.19
  11540.79    5962.56     142.66
  11484.08    5902.42     142.34
  11456.06    5873.72     142.34
  11428.98    5845.88     142.59
  11403.69    5818.38     142.73
  11380.73    5790.56     142.90
  11359.96    5761.62     143.08
  11340.84    5730.50     143.08
  10197.05    3827.21     142.65
  10616.53    4838.26     142.64
  10542.66    4753.95     142.66
  10520.73    4723.17     142.67
  10497.22    4691.85     142.68
  10472.75    4659.89     142.69
  10442.97    4628.40     142.70
  10317.52    3983.07     142.31
  11526.70    5947.26     142.29
  10108.74    3967.81     143.27
  11583.21    5737.10     140.74
  11991.78    6410.93     140.89
  10100.45    3932.38     143.09
  10097.28    3896.35     143.09
  10881.96    4496.09     141.79
  10153.62    3696.01     143.32
  11581.61    6009.40     142.21
  10139.80    3609.94     143.39
  11632.80    6073.86     141.81
  11479.47    5639.68     140.95
  10696.99    4320.45     141.94
  10178.11    3784.37     142.95
  10136.04    3546.78     143.54
  10232.66    3885.59     142.47
  10262.74    3920.31     142.32
  12012.90    6464.97     140.60
  10840.71    4426.41     141.56
  11600.06    5765.99     140.73
  11671.74    5913.53     141.06
  12107.84    6700.55     140.48
  12113.10    6718.96     140.47
  11838.24    6147.75     140.95
  10152.99    3937.70     144.43
  11892.31    6226.22     140.91
  10138.15    3506.45     143.77
  10111.55    3471.11     142.49
  12081.57    6630.31     140.52
  11791.13    6084.15     140.98
  10229.65    3923.18     142.75
  11826.34    6132.18     140.96
  12103.29    6682.54     140.76
  10829.37    4415.33     141.58
  11484.52    5663.65     140.92
  10733.90    4345.99     142.08
  10136.74    3567.63     143.50
  10142.00    3631.31     143.35
  11803.03    6100.20     140.97
  11512.47    5932.10     142.31
  10086.89    3744.66     143.07
  11956.57    6343.30     140.82
  11555.84    5708.96     140.83
  10086.93    3764.24     142.89
  12005.12    6446.68     140.61
  11693.47    6155.01     142.35
  11255.35    5590.16     143.97
  11322.13    5696.83     143.24
  11212.88    5534.15     143.86
  12021.41    6483.05     140.59
  10095.45    3877.86     143.08
  11230.27    5560.24     143.95
  11454.58    5572.72     140.94
  10395.23    4570.01     142.67
  11775.98    6266.34     142.16
  11310.60    5508.85     142.02
  12002.42    6616.98     141.69
  11824.50    6328.43     142.05
  12023.84    6676.41     141.53
  11331.23    5512.57     141.01
  11921.59    6275.00     140.89
  11380.50    5525.71     143.31
  10562.16    4752.07     142.75
  11183.12    5474.35     143.02
  11288.18    5501.85     142.03
  11871.25    6194.85     140.93
  12037.90    6518.28     140.57
  10746.78    4378.83     142.09
  11860.93    6178.91     140.94
  10070.30    3475.87     142.97
  11902.78    6242.01     140.90
  11716.70    6187.54     142.31
  11184.98    5437.78     141.99
  11705.13    6171.29     142.32
  12030.35    6500.29     140.58
  11965.80    6360.24     140.81
  12089.20    6648.01     140.51
  11849.90    6163.13     140.94
  10133.17    3484.28     143.81
  11360.28    5528.65     141.47
  11568.28    5993.66     142.22
  10173.35    3927.01     144.81
  11197.75    5503.28     143.07
  11620.19    6057.69     141.81
  10875.51    4481.18     141.82
  11947.26    6326.49     140.83
  12044.79    6680.79     140.69
  11631.95    5874.15     141.00
  11311.26    5642.73     142.12
  11589.19    5990.60     143.45
  11457.14    5633.63     140.90
  11744.32    6056.10     140.88
  11276.87    5586.83     142.72
  11400.53    5522.18     140.82
  11225.76    5519.43     142.17
  12099.36    6735.99     140.34
  10116.92    3535.72     142.37
  11895.41    6386.27     141.47
  11713.37    6153.23     143.15
  10117.41    3557.23     142.34
  11550.28    5729.17     141.12
  11641.18    5893.56     141.12
  10837.57    4444.88     141.88
  11970.59    6497.83     141.34
  11300.17    5623.87     142.69
  10165.03    3801.85     142.59
  11909.65    6291.83     140.69
  11860.82    6212.72     140.73
  10081.80    3493.89     143.20
  10098.20    3676.56     143.14
  11341.65    5696.76     142.18
  10099.38    3568.56     143.84
  10129.15    3666.18     142.38
  10134.39    3688.18     142.35
  11758.02    6071.75     140.81
  10185.54    3846.10     142.86
  12038.95    6570.66     140.47
  10106.31    3658.40     144.07
  12046.55    6589.93     140.45
  10124.64    3644.34     142.22
  10871.17    4465.16     141.50
  11964.81    6393.86     140.73
  11412.24    5537.70     140.84
  11522.36    5702.09     140.93
  12057.41    6722.70     140.66
  11218.20    5549.11     143.92
  12082.18    6745.07     140.24
  11321.85    5661.32     142.15
  10095.63    3517.32     143.72
  11845.11    6325.15     142.19
  11331.92    5679.32     142.17
  11175.93    5420.22     142.01
  11508.73    5689.93     140.93
  11796.27    6263.28     142.79
  11959.91    6477.28     140.85
  10138.59    3710.13     142.34
  12014.65    6601.44     141.23
  11991.03    6539.75     141.29
  10222.76    3903.05     142.70
  11191.24    5487.84     143.03
  11999.16    6561.07     141.27
  11640.25    6055.72     142.91
  11945.39    6361.25     140.75
  11575.64    5974.76     143.49
  11661.30    5931.50     140.89
  11423.52    5554.21     140.87
  11450.77    5611.63     140.89
  12063.68    6743.11     140.65
  11678.40    6103.42     143.10
  10112.37    3866.79     143.13
  11266.67    5503.89     142.18
  12054.13    6609.01     140.44
  11219.35    5465.84     142.10
  11234.90    5479.74     142.08
  11251.19    5493.03     142.07
  11518.12    5912.82     142.93
  12006.99    6581.47     141.25
  10156.86    3778.72     142.63
  10823.08    4431.56     141.91
  10097.73    3545.37     143.79
  10115.36    3903.49     143.23
  11317.67    5528.33     142.11
  10175.10    3824.23     142.90
  11288.84    5605.11     142.71
  12024.63    6532.10     140.50
  11955.22    6377.82     140.74
  11433.83    5571.99     140.88
  10143.00    3732.57     142.33
  11613.44    5836.43     141.08
  10210.47    3884.35     142.73
  10189.48    3912.18     142.24
  10124.07    3500.12     142.47
  11747.85    6201.41     142.84
  11263.21    5571.33     143.21
  11920.57    6419.58     141.42
  12051.67    6701.58     140.68
  11948.88    6456.17     140.87
  12029.44    6640.76     141.18
  11832.62    6310.15     142.63
  11650.70    5912.79     141.14
  10149.53    3755.19     142.31
  12036.93    6660.53     141.16
  11935.43    6436.96     140.89
  11907.72    6402.71     141.45
  11883.27    6370.48     141.49
  11666.21    6087.43     142.83
  11615.29    6023.00     142.97
  11627.89    6039.42     142.94
  11561.67    5958.99     143.53
  11587.31    5781.24     140.96
  11503.92    5897.84     142.88
  11536.21    5715.34     141.12
  11622.65    5855.14     141.00
  12022.07    6621.09     141.20
  11489.75    5883.24     142.83
  11981.44    6518.53     141.32
  11701.58    6136.95     143.00
  11784.57    6247.51     142.68
  10098.80    3490.34     143.51
  10196.76    3866.69     142.93
  11547.30    5943.45     143.45
  11602.46    6006.75     143.40
  10118.76    3578.90     142.31
  11442.95    5591.01     140.89
  10120.36    3600.52     142.29
  11653.09    6071.79     142.86
  11917.11    6309.79     140.77
  10113.74    3885.05     143.21
  10120.37    3516.67     142.47
  10122.23    3622.28     142.25
  10209.50    3918.04     142.42
  11295.76    5524.19     142.21
  11708.32    6003.23     140.90
  11389.66    5772.90     142.51
  11731.56    6039.19     140.88
  11339.36    5529.93     140.65
  11273.70    5521.10     142.05
  12093.02    6714.71     140.75
  11872.11    6227.98     140.72
  12061.64    6627.87     140.43
  11771.78    6086.23     141.06
  11806.10    6134.71     140.77
  11981.23    6425.61     140.64
  12086.22    6678.60     140.60
  10121.89    3952.78     143.06
  11902.14    6274.87     140.70
  11350.90    5713.23     142.24
  11203.54    5451.41     142.13
  11462.42    5656.01     140.92
  11595.91    5799.85     141.10
  11807.69    6279.33     142.73
  10115.79    3937.89     143.06
  11672.77    5949.70     140.88
  11684.59    5967.60     140.91
  10109.63    3848.49     143.13
  11724.64    6169.58     143.10
  11487.93    5688.74     141.77
  10103.80    3773.99     143.17
  11984.49    6443.38     140.75
  11369.65    5744.39     142.28
  11461.92    5854.73     142.48
  10108.36    3829.57     143.12
  11563.91    5743.83     140.96
  11360.12    5729.07     142.25
  11235.35    5538.44     143.15
  11411.20    5800.29     142.47
  11435.39    5827.44     142.44
  10106.91    3811.40     143.19
  10104.83    3792.57     143.18
  10115.26    3488.60     142.48
  12031.45    6551.23     140.48
  11604.57    5818.16     141.09
  12001.31    6481.63     140.53
  11696.44    5985.36     140.91
  11857.68    6340.48     142.15
  11249.43    5555.58     143.18
  11379.51    5758.85     142.53
  11578.55    5760.45     140.78
  11772.31    6232.01     142.72
  11818.21    6150.52     140.76
  10104.42    3634.67     144.02
  11819.84    6295.11     142.68
  11532.66    5928.11     143.39
  10101.04    3590.64     143.89
  11893.25    6258.64     140.70
  11973.17    6410.78     140.64
  10133.98    3932.87     143.28
  12077.12    6664.06     140.75
  11794.55    6118.30     140.78
  11199.98    5470.63     141.98
  10102.73    3612.50     143.97
  12088.13    6695.66     140.75
  10103.38    3714.28     143.81
  11735.96    6185.76     142.86
  12020.97    6514.64     140.75
  11448.55    5841.03     142.45
  11830.32    6165.73     140.75
  11935.43    6344.61     140.75
  10170.80    3906.18     143.04
  11719.80    6021.25     140.89
  11423.02    5813.98     142.45
  11215.02    5505.40     142.19
  10105.28    3734.78     143.87
  11689.89    6120.28     143.06
  11371.41    5544.25     141.44
  11870.65    6355.44     142.11
  11475.76    5868.90     142.51
  11400.24    5786.66     142.49
  10100.93    3694.48     143.76
  11851.76    6196.79     140.74
  11759.99    6216.64     142.79
  11925.43    6327.60     140.76
  11992.37    6462.57     140.75
  10153.13    3917.23     144.75
  11392.00    5540.55     143.25
  12019.05    6565.99     140.59
  10115.53    3680.85     144.08
  12077.86    6727.61     140.26
  10116.93    3921.39     143.25
  11636.09    6021.33     142.90
  11509.75    5878.55     143.45
  10122.76    3723.70     144.20
  11783.93    6101.81     141.05
  11602.55    5853.19     141.16
  12011.29    6545.39     140.40
  10152.69    3820.55     141.98
  11629.45    5911.41     140.81
  11980.88    6479.63     140.46
  11610.62    5988.08     141.96
  10126.37    3747.45     144.26
  11663.13    5967.62     140.75
  10136.88    3770.97     142.05
  11351.56    5679.61     142.55
  11213.10    5486.92     141.95
  10172.56    3866.36     142.26
  11659.97    6054.03     142.83
  10104.56    3754.51     143.28
  10185.29    3888.51     142.22
  11414.23    5571.39     142.19
  11597.28    5971.67     141.97
  10203.37    3900.88     142.72
  12034.33    6605.43     140.56
  11436.44    5627.88     142.01
  11331.58    5643.55     142.33
  11915.63    6382.96     140.71
  11310.05    5605.18     142.19
  11841.93    6180.51     140.75
  11341.60    5661.98     142.51
  11567.21    5780.62     140.97
  12057.37    6663.74     140.30
  11797.77    6153.51     140.75
  11883.06    6243.43     140.71
  12010.75    6499.90     140.52
  11648.20    6037.86     142.86
  11403.89    5555.09     143.15
  11286.77    5564.29     142.05
  12069.24    6646.35     140.41
  11349.72    5547.59     140.66
  11320.98    5624.62     142.27
  11553.23    5924.17     143.01
  11502.95    5706.58     141.71
  11326.77    5548.05     142.06
  11299.20    5585.35     142.10
  11736.97    6076.20     140.75
  11853.95    6306.13     140.78
  11612.04    5871.90     141.10
  11303.45    5545.47     142.03
  11537.95    5908.81     142.97
  11639.04    5930.99     140.73
  12003.68    6521.80     140.42
  11960.76    6432.65     140.55
  11904.11    6366.65     140.72
  11688.27    6083.93     141.83
  12049.38    6644.13     140.32
  11991.22    6499.96     140.44
  11583.21    5955.76     142.00
  11249.00    5516.39     141.91
  11568.59    5939.63     142.01
  10119.43    3702.02     144.14
  11940.19    6416.31     140.52
  11721.81    6135.30     141.77
  10163.25    3843.14     142.28
  11970.92    6458.70     140.47
  11805.67    6243.87     141.06
  11650.90    5949.57     140.75
  12067.59    6684.85     140.32
  10141.29    3796.46     142.97
  11623.59    6004.73     141.93
  11673.89    6069.22     142.77
  11888.89    6290.21     140.75
  11896.55    6307.52     140.67
  11709.63    6119.35     141.79
  12072.36    6707.72     140.27
  10134.50    3910.46     143.57
  11523.90    5893.36     142.93
  11851.28    6230.44     140.75
  11430.60    5607.45     142.07
  11752.46    6091.08     140.75
  11593.23    5835.00     141.22
  11621.09    5891.17     141.16
  10128.95    3819.31     144.51
  11440.04    5649.36     142.68
  11575.97    5798.79     141.05
  11687.30    6003.09     140.93
  10128.86    3855.29     144.19
  11465.23    5679.74     142.46
  12026.73    6585.83     140.57
  11419.43    5782.53     142.50
  10121.70    3783.23     144.41
  11543.55    5748.90     141.01
  11379.19    5727.41     142.62
  11698.85    6101.71     141.81
  11810.82    6169.19     140.75
  10109.73    3503.45     142.42
  11675.24    5985.33     140.75
  11268.31    5553.68     141.84
  11409.34    5769.04     142.77
  11399.16    5755.56     142.71
  11924.78    6363.46     140.76
  11816.64    6260.44     141.04
  11792.78    6228.29     141.66
  11840.47    6292.20     141.02
  11956.66    6410.26     140.59
  11935.48    6379.98     140.75
  11556.45    5763.85     140.96
  11754.79    6183.82     141.72
  11388.97    5741.74     142.68
  10123.96    3838.11     144.13
  11865.29    6322.21     140.77
  11837.18    6215.45     140.75
  11529.97    5734.79     141.58
  10132.07    3874.54     144.24
  11430.25    5796.22     142.55
  11767.16    6198.11     141.70
  11946.10    6396.04     140.74
  10153.73    3889.42     144.68
  11468.29    5835.88     143.06
  11698.90    6021.14     140.91
  11721.85    6059.55     140.88
  11892.09    6350.83     140.73
  11363.39    5564.09     140.68
  11927.43    6399.64     140.70
  11360.96    5696.05     142.63
  11259.16    5536.83     141.87
  11495.56    5864.14     143.38
  11516.18    5720.79     141.65
  11785.25    6136.47     140.75
  11733.26    6151.76     141.75
  12041.81    6624.76     140.34
  11454.98    5822.61     143.00
  11481.83    5849.82     143.31
  11901.44    6328.90     140.79
  11422.46    5589.07     142.13
  11884.27    6273.95     140.67
  11383.85    5558.97     141.90
  10130.45    3892.61     143.53
  11644.80    6003.45     140.94
  11530.20    5873.42     141.51
  11281.81    5540.63     142.06
  11632.23    5986.39     140.99
  11369.92    5711.93     142.58
  11609.40    5907.38     141.02
  11331.27    5606.98     142.18
  11628.32    5949.84     141.09
  10121.34    3800.91     144.46
  11605.65    5952.10     141.01
  11743.42    6168.22     141.73
  11678.04    6052.11     141.22
  10119.00    3765.59     144.36
  11713.35    6082.50     140.82
  11729.93    6117.18     140.90
  11232.20    5499.92     141.93
  11584.49    5816.98     141.06
  11338.69    5569.09     142.00
  11428.99    5764.85     142.58
  11696.95    6061.25     140.94
  11575.25    5919.20     141.04
  10142.22    3839.48     144.54
  11418.57    5621.54     142.06
  11442.21    5809.63     142.59
  11342.12    5625.91     142.24
  11461.22    5804.54     142.70
  11351.77    5645.11     142.20
  11361.17    5662.91     142.20
  11717.14    6103.14     140.91
  11668.29    6036.77     140.93
  11913.67    6346.70     140.78
  11592.06    5869.69     140.94
  11312.57    5566.35     142.10
  11321.43    5586.84     142.15
  11590.40    5936.92     141.05
  11619.25    5969.18     141.00
  11485.07    5709.85     141.65
  11709.80    6040.44     140.90
  11614.42    5930.19     141.09
  11557.01    5904.99     141.09
  11827.10    6277.33     141.03
  11878.49    6337.05     140.76
  11656.91    6020.32     140.93
  11779.73    6213.03     141.68
  11641.24    5967.92     141.02
  10149.43    3861.55     144.62
  11875.05    6304.25     140.68
  11677.88    6020.33     140.88
  11601.37    5888.14     140.89
  11834.51    6196.45     140.68
  11388.36    5710.81     142.43
  11873.80    6260.91     140.75
  11734.07    6096.94     140.89
  11523.22    5754.06     141.47
  11418.04    5641.26     141.68
  11666.02    6002.93     140.99
  11556.51    5798.75     141.70
  11495.60    5725.27     141.61
  10564.22    4268.28     141.70
  10550.63    4253.52     141.72
  10537.36    4238.29     141.76
  10524.39    4222.80     141.84
  10511.40    4207.51     141.92
  10498.21    4192.54     142.00
  10485.13    4177.67     141.87
  10472.42    4162.38     141.87
  10460.16    4146.73     141.86
  10447.68    4131.36     141.86
  10434.20    4116.55     141.85
  10419.99    4102.17     141.85
  10405.08    4088.22     141.84
  10389.42    4074.61     141.84
  10372.88    4061.13     142.08
  10355.01    4049.19     142.08
  10336.12    4039.67     141.82
  10317.19    4032.04     141.82
  10298.32    4024.74     143.06
  10280.43    4016.49     143.15
  10263.89    4006.79     143.23
  10248.25    3995.91     143.32
  10233.01    3984.72     143.40
  10217.76    3974.51     143.45
  10202.51    3966.78     143.53
  10176.26    3974.07     144.93
  10154.46    3409.05     143.60
  10114.24    3413.88     143.09
  10074.82    3419.03     143.44
  10035.33    3424.39     143.15
  12166.53    6712.63     141.25
  12155.88    6674.53     141.87
  12141.88    6637.78     141.85
  12126.12    6601.49     141.25
  12110.38    6564.80     140.98
  12095.17    6527.76     140.98
  12080.26    6490.64     141.24
  12065.17    6453.73     141.24
  12049.92    6417.09     141.69
  12034.16    6380.72     141.67
  12017.58    6344.78     141.64
  12000.18    6309.31     142.59
  11981.92    6274.35     142.59
  11962.65    6239.93     142.58
  11942.24    6206.22     142.57
  11920.67    6173.25     141.52
  11898.01    6140.91     141.50
  11874.49    6109.02     141.47
  11850.41    6077.35     141.45
  11826.07    6045.65     142.54
  11801.78    6013.71     141.40
  11777.92    5981.27     141.21
  11754.78    5948.10     141.20
  11732.65    5914.07     141.20
  11711.91    5879.07     141.32
  11692.91    5843.14     141.33
  11675.75    5806.60     142.53
  11659.55    5770.19     143.88
  11642.80    5734.84     143.90
  11624.53    5701.85     143.91
  11599.37    5674.36     142.56
  11568.63    5649.91     141.41
  11511.08    5565.76     142.59
  11494.22    5531.36     141.46
  11470.88    5499.37     141.38
  11435.46    5425.10     140.34
  11426.14    5386.69     141.41
  11413.52    5350.39     141.56
  11398.09    5315.74     141.84
  11376.11    5283.91     141.59
  11353.10    5249.72     141.60
  11333.53    5212.40     141.62
  11316.83    5174.86     141.63
  11302.45    5136.58     141.51
  11293.24    5098.14     141.66
  11279.01    5062.22     141.94
  11263.27    5026.26     141.95
  11246.02    4990.76     141.94
  11227.72    4955.61     141.93
  11207.09    4920.58     141.68
  11187.64    4884.33     141.67
  11173.18    4847.46     141.88
  11155.79    4812.37     141.86
  11139.76    4777.15     141.84
  11117.95    4746.61     141.83
  11091.85    4718.38     141.81
  11062.08    4693.04     141.63
  11031.64    4667.25     141.73
  11001.31    4640.13     141.32
  10947.74    4549.69     141.78
  10939.07    4510.39     141.59
  10929.50    4472.83     141.69
  10916.61    4438.07     141.68
  10894.40    4409.02     141.66
  10866.95    4382.93     141.65
  10836.39    4359.00     141.63
  10804.92    4335.09     141.62
  10773.18    4310.20     141.60
  10741.90    4284.48     141.58
  10711.81    4257.62     141.57
  10682.41    4230.27     141.55
  10653.34    4202.93     141.52
  10624.29    4175.94     141.51
  10594.45    4150.05     141.54
  10564.03    4125.08     141.58
  10532.62    4100.25     141.62
  10500.73    4075.51     141.66
  10469.52    4049.85     141.69
  10438.65    4024.15     141.73
  10408.34    3998.11     141.77
  10377.58    3972.05     141.81
  10348.68    3942.95     141.74
  10320.90    3913.06     141.77
  10294.83    3881.62     141.79
  10270.61    3848.32     141.84
  10249.04    3812.97     142.08
  10230.74    3775.66     142.32
  10216.47    3736.58     142.57
  10206.31    3696.41     142.83
  10199.41    3655.86     143.00
  10194.84    3615.38     143.24
  10191.75    3574.99     143.45
  10189.67    3534.56     143.66
  10188.32    3493.83     143.83
  10189.43    3454.51     144.21
  10187.62    3418.59     144.44
  12035.91    6823.97     141.73
  12075.99    6816.05     141.10
  12116.82    6808.18     140.29
  12157.42    6800.04     140.66
  10013.84    3493.98     140.77
  10004.89    3451.05     140.59
  10022.08    3534.66     140.58
  10027.26    3575.63     141.09
  10030.14    3616.32     141.23
  10031.57    3656.60     141.18
  10032.47    3696.70     141.39
  10033.58    3736.54     141.61
  10034.97    3776.19     141.43
  10037.04    3815.72     141.63
  10040.07    3855.05     141.90
  10044.26    3894.12     142.12
  10049.83    3932.91     142.35
  10057.24    3971.43     142.79
  10066.22    4009.59     142.91
  10077.94    4047.54     142.87
  10089.94    4085.64     142.86
  10100.34    4123.43     142.93
  10114.54    4159.95     142.91
  10126.77    4197.55     142.80
  10141.13    4234.38     142.77
  10156.85    4270.82     142.75
  10171.65    4307.47     142.73
  10188.41    4343.09     142.70
  10207.52    4377.23     142.68
  10227.33    4411.45     142.76
  10247.97    4445.37     142.63
  10269.43    4478.89     142.61
  10291.36    4511.95     142.59
  10313.54    4544.47     142.57
  10337.36    4575.81     142.55
  10361.11    4607.66     142.52
  10385.14    4639.40     142.50
  10409.92    4670.82     142.31
  10434.83    4702.06     142.31
  10459.42    4733.54     142.31
  10483.88    4764.88     142.31
  10508.65    4795.78     142.31
  10534.18    4825.73     142.31
  10559.69    4855.62     142.71
  10585.98    4885.02     142.72
  10613.63    4912.72     142.31
  10641.95    4939.60     142.31
